ply
format ascii 1.0
comment created by PLYWriter
element vertex 771
property float x
property float y
property float z
property float x
property float y
property float z
end_header
1.9563296 1.1184472 0.1000045 18.799992 7.173777 3.2989707 
1.9988027 0.19990619 0.8637042 18.799995 8.331144 9.139686 
1.3329291 0.10000042 0.75587064 17.49223 5.590238 9.899997 
1.9812671 1.0976226 0.10000034 18.799992 9.382358 1.0502781 
1.4572273 0.10000137 0.100004174 12.77217 5.064622 0.103946604 
0.100002706 0.10000104 2.1896458 14.009675 0.10000289 9.899995 
0.10000236 0.10000344 1.8132313 0.10000166 0.10000123 2.320684 
0.10000032 1.3096688 1.4600804 0.100004695 6.1228375 7.6142273 
0.10000004 1.2649938 1.4351436 2.259741 9.899995 9.899998 
0.81534 1.8415749 0.100002706 8.604096 3.2564092 0.1036688 
0.10000213 0.10000182 0.8786951 10.7042265 1.6323841 9.899982 
0.10000043 1.0486853 0.100000046 15.762514 9.899998 0.10019073 
0.82009286 1.8469251 0.10000062 15.98954 9.868665 3.4746253 
0.10000496 0.10000326 1.3137352 16.266838 5.067157 9.899999 
0.100001104 1.8803893 0.10000257 0.10000232 8.94828 0.10000256 
0.100001395 0.79229933 1.3108461 5.3948803 9.893412 8.707901 
0.10000387 0.100001976 1.8087714 0.42670003 9.11573 3.9526868 
0.10000438 0.10000397 1.4953094 5.8225737 0.5902283 9.899996 
0.5191704 0.10000087 0.10000316 18.799994 6.753645 8.701095 
1.4813797 0.10000204 0.10000163 0.100004114 4.4930634 3.790904 
0.34619653 0.10000135 0.10000435 1.7903901 8.46636 0.10030792 
0.50196475 0.10000085 0.100003764 0.100001074 0.100002356 1.071173 
0.100003734 0.10000099 1.4923155 4.847997 0.100003526 9.899995 
0.7888828 1.8124415 0.100000426 18.799994 9.376133 0.1000012 
0.10000031 0.4855933 0.10000022 0.85857457 9.899999 9.077751 
0.10000339 2.4076316 0.10000366 11.499723 9.899996 9.9 
0.10000403 0.100004025 1.4997408 3.7711062 6.560146 0.1083569 
0.44482508 0.10000486 0.10000239 18.799992 0.10000324 0.93886054 
0.10000472 0.10000014 1.3134184 0.9732843 1.5713307 9.9 
0.7692093 1.7711886 0.10000336 4.296585 9.899999 0.10000046 
1.6588778 0.6679436 0.100002944 14.642177 9.8747 5.1655173 
0.10000297 1.4348472 0.10000143 10.7642765 8.906381 4.8615465 
0.10000432 0.10000338 1.5675311 0.10000292 0.10000435 2.4935107 
0.10000308 1.2185453 0.100004494 7.4654336 8.548939 9.899998 
1.9810379 0.3094985 0.86438507 0.10000235 0.10000485 0.10000016 
0.10000305 0.10000298 0.6405985 2.420663 9.899996 9.136516 
0.100004025 0.52345526 2.2178113 0.10000325 6.548351 9.899996 
0.10000006 0.10000296 2.1896653 0.100000925 0.100001924 8.86124 
0.9076908 1.1461663 0.10000158 18.799995 9.899998 8.40723 
0.100002475 0.1000019 0.83526194 6.537731 4.431292 9.899999 
0.10000083 0.100002356 2.1896372 0.10000404 0.81928253 7.4840326 
1.606852 0.10000449 0.10000169 18.799994 3.1893983 8.132178 
0.81846684 0.73747087 1.5963129 14.780869 1.4459087 9.899997 
0.88401747 0.10000083 0.100001186 5.1765785 8.525594 4.9571986 
0.107313156 0.12247128 0.10000224 0.24653183 4.631351 8.790539 
1.4356976 0.6280484 0.100001305 17.677406 8.191239 0.10000075 
0.8711144 0.1000001 0.10000203 2.6041138 8.378507 9.899997 
0.100002356 0.10000464 0.853843 11.351402 4.6134562 0.10001291 
0.10000306 0.50651217 0.10000258 10.301059 7.8630943 0.10386743 
1.4601449 0.10000271 0.10000375 10.527576 0.100002125 0.10000071 
0.10000326 0.2986223 0.100002535 1.4564475 0.10000456 0.10000201 
2.5362644 0.10000476 0.100003466 18.799994 7.5689135 0.100003116 
1.5826845 0.10000335 0.10000156 2.3961675 0.10000137 9.899998 
0.86424786 0.100004084 1.6399381 17.5001 0.10000366 9.899999 
0.10000416 0.100002185 1.530719 15.618715 0.10988204 0.10000299 
1.8335911 1.3401898 0.100001104 14.989912 9.899998 8.975974 
0.10000174 0.100001186 0.5152411 0.10000043 9.899998 5.8405824 
0.1000025 1.3983068 1.5322146 1.032479 9.0486965 9.899999 
1.9857776 0.10000273 0.91159344 17.95741 5.8004436 9.899999 
0.10000302 0.10000076 1.4965644 2.2097692 0.100001425 0.10000363 
0.35439816 0.10000154 0.100002274 0.10000372 9.899998 3.337597 
0.10000324 0.10000451 1.8118237 4.0199804 9.899997 9.9 
0.10000017 0.10000367 1.5723803 0.23420815 2.4019704 7.414039 
0.33931962 0.10000153 0.10000118 1.5796108 0.10000326 9.899996 
0.100004286 1.2125727 0.10000441 0.10255744 4.8938503 5.682763 
0.100001134 0.4892114 0.10000077 0.10000469 1.2447045 0.10000155 
0.10000173 0.100004904 2.1896763 0.10000363 3.7477329 9.899995 
0.10000046 0.100001976 0.88816196 4.843503 0.10000039 6.4217954 
0.10000108 0.10000354 0.88918424 3.3286538 4.3112087 9.899997 
0.10000061 0.9031277 1.3300126 1.7476782 0.10000055 7.922825 
0.10000164 0.10000336 1.2398558 13.561774 9.899996 9.899997 
0.8583254 1.7746458 0.48833966 16.760218 8.6343155 9.899987 
0.10000089 1.2779746 1.4418299 9.29695 9.899997 9.9 
0.10000414 1.0428125 0.10000127 18.799995 3.6572096 0.10000374 
0.10000352 0.10000034 0.6878183 0.10000259 0.10000194 7.4995265 
1.6042984 0.10000384 0.100004345 18.79996 0.100008324 6.816175 
1.0214555 0.10000099 0.7344124 18.799992 4.696871 9.899997 
0.10000401 0.10000482 1.5106621 0.10000223 9.899999 1.9088781 
0.10000305 0.47956312 0.10000395 5.185345 8.660388 9.899999 
1.5199378 0.10000433 0.10000474 18.799994 9.162118 9.899996 
1.6489042 0.10000416 0.67035425 18.799994 4.8998404 7.6566563 
0.8671379 1.1627401 0.10000367 18.799992 9.899996 0.52263784 
1.1930851 0.7652898 0.10000253 18.799995 8.696437 0.73534966 
0.7593261 1.7452474 0.10000164 18.799994 7.7163615 0.10000261 
0.41598672 0.10000344 0.10000447 13.776636 0.10000093 8.477342 
0.10000324 0.1000049 0.100004315 4.337518 4.9180636 9.899998 
0.100000225 0.31004173 0.10000352 0.100004606 0.8423323 9.899995 
0.10000421 0.10000246 1.5144215 0.100003555 2.7877233 0.10000394 
0.10000252 0.10000245 1.8110052 4.578188 3.6781738 9.899997 
0.10000271 0.1000023 1.5082922 3.3129783 2.7918763 0.10038273 
0.1000041 1.0367541 0.10000217 12.444604 9.870371 4.351594 
0.7648878 0.10000395 1.5871338 6.6903143 2.9267902 9.9 
0.10000399 0.5243374 0.15645999 8.431984 9.279358 9.9 
0.10000177 0.30155915 0.10000033 0.100004815 1.8920765 0.10000086 
0.8008071 1.830096 0.1000009 8.795074 9.712321 2.1599472 
0.67984957 0.10000107 1.5788848 8.522998 2.2455451 9.898793 
1.0341766 0.10000114 1.9476417 18.307055 9.899998 9.899995 
1.991624 1.0982368 0.10000059 18.799992 9.899998 3.1525235 
0.8734094 1.1618853 0.100000456 18.799994 9.145303 4.2082434 
0.100001134 0.8654944 0.100003034 0.10000266 0.10000439 8.771959 
0.10000232 0.100002095 0.51641816 0.100003004 9.247247 7.7837934 
0.10000143 0.10000102 2.1896317 5.7538185 0.10000571 4.8875184 
0.3374945 0.1000025 0.10000479 0.10000406 0.100002944 6.873387 
0.1000037 0.10000397 1.8107986 4.9985332 9.898195 9.1216955 
0.10000018 0.10000214 1.8115333 6.0587616 5.9703126 9.899997 
0.10000289 0.30748641 0.100001514 17.425917 0.100007415 7.174184 
0.5259394 0.10000357 0.10000401 0.100002475 0.100003816 1.4212157 
1.5345262 0.100002445 0.10000094 18.799995 5.4636173 6.4874783 
0.1000043 0.10000448 1.503275 3.3209925 0.100004934 0.10000497 
0.100004576 0.100000724 1.5094435 1.8707777 0.10000227 0.8638952 
0.10000228 0.100004874 1.513278 0.100003295 4.0774994 8.568478 
1.3008409 1.7353929 0.10000045 9.276265 9.834719 3.025512 
0.10000238 0.10000001 1.5035509 8.641201 0.10049617 5.2445183 
0.9710527 0.10000309 1.8555255 0.100004576 9.899999 9.899997 
0.74980545 0.10000358 0.8308333 13.310322 1.7485641 9.893418 
0.8127033 0.58402306 1.8843786 7.183253 6.5565023 9.899998 
0.3527144 0.10000194 0.10000182 0.1000024 0.10000472 2.9225183 
0.6260052 1.041214 1.7160568 14.269991 8.61737 9.899998 
0.8792809 0.10000273 1.6573701 18.799995 7.639879 9.89999 
0.84334654 0.7666584 1.704929 15.3217125 8.5660715 9.9 
0.100002855 0.10000279 1.8113112 7.7687087 3.6192377 9.899996 
0.10000293 2.1128876 0.7430018 1.1835141 9.899999 6.985193 
0.1000003 0.49125785 0.10000092 0.10000165 9.899999 2.0974119 
0.84692806 1.8581119 0.10000347 18.006704 9.535279 3.1117494 
0.100000635 0.10000461 1.313468 8.841059 9.899996 8.96293 
1.460878 0.63774973 0.10000335 18.79999 4.356051 0.10000083 
0.7606488 1.2586157 0.10000218 6.811644 8.5743265 0.100001834 
1.7885025 0.82242256 0.7269531 18.342798 7.935632 7.6415315 
0.10000199 0.9373972 1.3373888 0.10000255 9.899998 1.6011186 
0.9624727 0.10000015 1.8249674 15.522148 0.10014476 9.064583 
0.78032637 0.8099443 1.6404871 12.713457 9.188586 9.899999 
1.0233111 0.10000347 0.10000471 18.799994 9.899998 9.3919525 
2.0327473 0.10000369 0.8241402 18.795458 4.250587 4.96489 
0.5430894 0.10000244 0.100002766 18.682545 2.9611318 7.503129 
0.78022766 0.10000083 1.590524 2.6579587 5.886743 9.899995 
0.69682294 1.4972253 0.5982929 3.2744865 9.896802 8.213782 
0.10000036 0.83748716 0.10000408 0.11432277 7.0608125 1.5425365 
0.100000136 0.82482094 0.10000293 0.1000227 7.9032216 3.5268137 
0.819644 0.100000486 1.605356 0.7319935 2.287639 6.6452904 
0.100002 0.10000118 1.4938468 0.32032058 4.962581 4.070698 
0.100000836 0.38513008 0.10000026 0.100001186 9.899998 2.401238 
0.35759512 0.10000468 0.10000313 17.930574 0.10000274 1.3861768 
0.10000141 0.78188926 1.311258 0.7562668 9.899999 0.999574 
0.100002974 1.0872957 0.6855618 2.2262638 9.89362 8.579413 
0.100002155 1.7001063 1.3183037 5.064664 7.656849 9.899999 
0.10000205 0.10000091 1.257085 5.502533 9.899996 9.899998 
0.7369799 0.10000405 1.5872937 10.024955 4.383679 9.899999 
0.5682292 0.100001656 0.10000418 11.672501 2.0301075 4.627411 
0.1000047 1.9155136 0.10000415 18.799995 9.441598 0.10000146 
0.10000422 0.10000168 1.8159137 17.330715 3.4567754 9.899996 
0.10000226 0.8457119 0.10000149 5.001237 6.241943 0.100001305 
1.4980521 0.10000307 0.100003205 0.10000488 5.71584 4.6929264 
0.10000319 1.2197076 0.1000008 13.592037 6.448848 0.10004309 
0.100003086 0.5977777 1.9001223 3.3643072 1.6985351 9.899999 
0.97452873 0.100002095 1.8591037 18.799992 0.100002736 4.850891 
0.10000113 1.0517129 0.10000292 7.118559 9.864631 4.2385116 
0.100004524 1.253306 1.429416 11.463312 9.200504 9.899997 
0.10000322 0.1000001 1.190175 4.646158 9.899998 9.899996 
0.9429329 0.10000074 1.777889 18.79997 0.10003776 7.794453 
0.10000118 0.10000414 1.8101552 0.10000199 1.515795 4.4811516 
0.10000295 0.10000098 1.3144658 9.099918 0.1 9.899999 
0.86920446 1.0174999 0.5017097 8.837314 9.899995 6.0700965 
0.33106032 0.10000364 0.100004606 6.7822 2.030715 2.7905746 
0.10000344 0.9750952 0.100002766 4.865211 5.1443954 0.100023985 
1.5166352 0.10000081 0.100000456 16.443773 5.637527 1.4895986 
0.6675426 0.1000036 0.81754476 7.0159097 0.10000278 9.899995 
0.10000343 0.100003846 1.5725863 0.10000372 2.0002477 2.4362092 
0.100000985 0.100003906 1.5048794 9.086804 9.899997 0.10000462 
0.10000028 0.10000299 0.6660141 8.585113 8.207844 0.10000295 
0.7270284 1.4995201 0.47965774 6.691323 9.899995 5.1146927 
0.8838588 0.10000033 0.100002535 8.246117 8.25768 7.0968046 
0.10000081 0.8814917 1.3128831 1.6072304 9.724546 8.516403 
0.10000371 1.325056 1.4700519 13.174485 9.899999 9.899999 
0.10000333 1.8520291 1.1507219 7.521191 8.05087 9.899997 
2.0253422 0.10000058 0.8310369 18.799992 0.10033259 1.7747774 
1.8206278 1.3561958 0.10000267 18.799992 9.899997 3.4016593 
0.10000213 0.10000174 1.8112777 18.799992 2.5016198 8.162291 
0.10000064 0.84724295 0.10000291 0.10000273 9.899997 7.7165837 
0.10000279 0.100004725 2.1896434 0.7495263 9.112735 9.899999 
0.10000117 0.35597727 0.100003764 0.9302729 7.6666174 0.10000495 
1.9883232 0.10000463 0.10000447 18.799992 9.899996 7.2517715 
0.79548484 0.7525423 1.6055043 7.9830174 0.90049493 9.899998 
0.10000398 0.74162483 1.3051597 0.14009109 2.677912 6.3790803 
0.10000113 0.10000482 0.88159484 0.20128563 2.9166336 2.7764091 
0.1000048 0.100004114 1.2061185 0.10000071 8.6964855 0.8992134 
0.100001946 1.3580984 1.4941547 2.4355738 4.932602 9.899999 
0.10000126 1.396168 1.5245011 5.583287 5.9991603 9.561545 
0.10000258 0.10000414 1.4942366 3.189826 0.100001 6.4636164 
0.10000129 0.4927854 0.10000237 2.8309915 9.8882885 7.977157 
0.10000235 0.34241086 0.10000077 3.0175087 9.877931 0.10000465 
0.74894255 1.717579 0.10000185 14.106074 9.892297 0.10000104 
1.5992211 0.100004554 0.100001164 13.153573 0.10000425 0.10000376 
0.10000468 1.3779321 1.5099285 1.6155732 9.842663 7.584054 
0.4185711 1.2914356 1.6678804 0.1000018 5.4135947 8.394097 
0.1000034 0.32746398 0.10000285 0.34787405 9.899996 9.899996 
0.10000039 0.5125357 0.10000011 14.318574 9.883568 3.7893422 
0.13689649 0.5273755 0.10000016 6.8504353 9.864962 2.9675229 
0.10000458 0.48976335 0.10000049 1.073537 6.987524 7.604043 
0.93736815 0.8288122 0.10000327 16.101845 4.8581758 0.10423461 
0.54186296 0.100002535 0.10000048 18.79917 1.6062043 3.0653307 
0.10000084 0.10000057 1.3133827 6.1136136 5.262752 9.899997 
0.8797375 0.10000259 1.6654234 9.333572 3.1070642 9.893322 
0.861095 0.10000228 0.7513346 16.7825 7.059642 0.100000866 
0.10000121 1.1768645 0.10000196 13.402771 5.600938 0.10000408 
1.8863078 1.0252503 0.10000053 13.3885145 9.888426 0.10000416 
0.10000266 1.1176535 1.3794653 1.5528252 1.7667426 8.770898 
0.100001834 0.10000444 0.5169041 0.10000682 8.328815 6.277419 
0.10000035 0.10000019 1.5699279 8.24496 0.100001186 9.9 
0.3382633 0.10000086 0.100000046 4.0750794 1.992269 8.144756 
0.10000288 0.100002356 1.5073104 3.5859253 0.10000423 0.1000009 
0.100001305 0.7163636 1.3608118 1.4073669 8.268889 9.899997 
0.10000481 1.9109455 0.10000435 11.358002 7.0062346 9.899996 
1.4233007 0.10000477 0.75213945 18.799994 2.262159 9.899995 
0.8652672 0.100004636 1.6119177 5.913928 0.10000145 9.899996 
0.10000471 2.5954523 0.10000314 7.6940923 7.5865946 6.9827623 
1.6306953 0.10000158 0.100001626 18.799969 1.9209877 6.321427 
1.3962282 0.100004606 0.7664357 15.890443 3.3390107 9.899997 
0.100003496 0.100005 1.8102641 0.10000471 7.3535953 0.10000122 
0.10000386 1.0382004 0.100003876 1.2400798 8.828275 5.250764 
0.10000296 0.4574268 0.10000113 0.97801834 4.9360185 9.06097 
0.1000042 1.7850021 1.2505093 9.161569 8.702474 5.89937 
0.10000343 0.49844423 0.10000454 0.100002415 7.7736235 9.899995 
0.85854375 0.1000048 1.6389459 18.799994 2.1531625 9.9 
0.45347992 0.10000155 0.100001015 18.799995 1.431834 6.414612 
0.10000474 0.1000014 1.2265528 5.5988703 6.435517 9.899995 
1.9803854 0.10000486 0.7957946 18.799995 0.9283115 3.8577645 
0.100000925 0.9224526 1.3293183 3.1143072 9.334493 9.899995 
0.10000318 0.100002185 2.189692 18.799995 2.4411538 7.582133 
0.10000206 1.3549435 1.7685552 4.8034186 5.3914537 9.899996 
0.10000473 1.0419493 0.1000001 5.5497084 3.6589887 0.10000954 
0.70258504 1.3629671 0.10000207 13.597025 9.523687 1.3181213 
1.1790276 0.7303794 0.10000059 17.990995 9.899997 0.77365386 
0.7195415 0.7397076 1.6337991 9.362355 8.960065 9.899987 
0.8859196 1.1516743 0.10000195 16.297358 9.804658 0.10000219 
0.10000362 1.2178911 0.10000218 0.1000016 3.1464176 9.899997 
0.44646424 1.2449224 1.7333064 17.016508 9.899996 9.899999 
0.10000327 0.3993755 0.10000052 1.0091165 9.886941 0.10000179 
0.10000276 0.1000027 0.880244 10.799397 0.100000426 9.899999 
1.9922681 0.10000134 0.8803622 14.415711 0.10000404 9.899996 
1.1804651 0.74260205 0.67853874 10.001156 3.7250638 7.8777847 
0.7884315 0.825951 1.6781482 8.905081 8.68432 9.9 
2.3227003 0.100001484 0.10000003 18.799994 9.104717 0.10000351 
0.7696219 1.7721602 0.100003205 18.244808 5.870941 0.10000339 
0.4413858 0.10000297 0.10000208 12.037559 0.10000473 0.100002274 
0.100000225 0.100003175 1.497319 2.28197 0.10000094 8.557057 
0.52815294 0.100002475 2.238455 3.8099103 0.100003906 9.899995 
0.10000052 1.676007 1.415495 0.93059754 6.9466715 9.899999 
1.0568657 0.7051897 0.72678256 14.264128 8.42293 8.838931 
1.759616 0.7019586 0.76704824 18.799994 4.527325 7.9133887 
0.51738423 0.10000382 0.1000038 12.053419 9.638838 1.5704173 
0.7679358 1.2558202 0.100001685 18.799992 9.899999 2.366331 
0.100003436 0.10000415 1.8108958 3.1760077 0.10000468 9.899995 
0.9518277 0.10000098 0.100001216 11.018364 7.091436 6.3110085 
0.88431025 0.10000442 0.10000155 10.032882 9.888909 2.2143161 
1.4197432 1.1929951 0.90304416 17.690052 8.891341 3.2763538 
0.6919122 0.10000141 0.79358315 13.011057 0.10000498 9.899999 
0.10000054 0.26625356 0.10000112 0.100004315 0.10000375 4.2865286 
0.42778444 0.10000232 0.10000087 4.407877 0.100004345 2.7058623 
1.2165145 0.7655131 0.10000457 17.878084 9.758279 4.6347795 
1.2005287 0.7989944 0.10000362 18.799992 9.899998 0.10000262 
0.53998923 0.10000495 2.0342155 18.799992 0.87325335 9.899997 
1.4828136 0.100003876 0.10000389 18.799992 2.9241934 2.6794133 
0.7670787 1.2498925 0.10000479 13.921695 8.99158 0.10014956 
0.45041993 0.100002095 0.100002706 18.799992 4.8110375 0.10000063 
0.44531256 0.100004636 0.10000124 18.799994 0.9416917 0.10000206 
0.10000387 0.10000031 1.316004 10.388488 0.10000157 3.9197657 
0.3382965 0.1000027 0.10000138 0.10000023 2.7170463 9.899999 
0.98012537 0.10000259 1.8834167 11.031983 4.1579294 9.899996 
0.45891958 0.10000168 0.100001186 18.799992 4.3795147 0.10000294 
0.100002736 0.7822989 1.3104187 0.100002006 4.8052726 9.899999 
0.10000441 0.855416 0.100000575 0.10000483 5.718691 0.100001335 
0.7434326 0.1000023 0.76107085 14.586722 0.10830358 3.9270175 
0.100003764 0.1000032 1.3079025 13.85085 6.3861227 9.899997 
0.7768537 1.2425576 0.10000368 15.931464 9.721251 2.8167367 
0.100004636 0.10000369 1.5005091 10.91108 0.1000046 0.100003205 
0.46830505 0.10000163 0.10000399 18.799992 0.100003004 0.30939156 
0.700634 0.10000475 0.76368356 10.387343 5.0292816 5.616157 
0.10000091 0.30794325 0.10000359 10.456929 0.10000454 9.899995 
0.5000598 0.10000453 0.100004464 18.799994 3.7566183 9.899999 
0.5174937 0.10000264 0.100000836 18.799992 6.837618 0.100003004 
0.10000278 1.0413425 1.3589792 0.10000176 4.7781982 9.899996 
0.10000372 0.3090756 0.10000109 0.100004785 9.899998 7.179214 
0.1000028 1.372441 1.5063077 3.3078766 5.150756 9.899989 
1.468126 0.96168005 0.80819684 13.347827 8.450841 9.899997 
0.100000136 0.4547947 0.1000033 1.8440955 2.2878642 9.899995 
0.10000471 0.92384285 1.328786 4.656422 8.612489 8.256952 
0.7816533 0.8645289 1.5981333 8.718137 9.882433 8.413917 
0.84535605 0.10000399 1.6236029 2.8545346 4.056076 4.905284 
0.10000404 0.5077137 0.10000323 0.10000418 6.671054 5.2507586 
1.4560192 1.0956147 0.9686267 18.799995 8.999918 9.899995 
0.10000352 0.10000296 1.3138964 16.74591 7.5907393 7.557734 
0.100001 0.100003846 1.8115195 0.100004 7.808968 9.899997 
0.10000364 0.7296879 1.2879661 5.807713 2.6817725 9.890321 
0.100002326 1.0094934 1.3526757 1.2338538 4.6967063 9.899995 
0.45467165 0.10000195 0.10000048 18.799994 1.1877967 0.10000498 
1.3738328 1.1862779 0.9016573 17.82042 9.890551 5.891368 
1.1835611 0.74800515 0.10000351 18.799994 7.074747 0.10000352 
0.10000015 1.2424628 1.4242778 6.805968 8.201328 7.9005885 
0.10000374 1.0362972 0.10000273 11.73589 9.899996 9.093503 
0.83659184 1.9138525 0.100003354 15.05678 9.899999 9.899996 
1.0570554 0.10000497 0.100003384 18.799994 8.781602 6.192278 
0.9240431 0.8401366 0.10000334 18.799992 8.493961 0.100002766 
0.10000185 1.9126425 0.100002386 8.426794 8.504927 9.899995 
0.100002326 1.216784 0.10000499 0.10000102 4.674717 9.899999 
0.78966874 1.8137962 0.10000366 1.9756324 5.300016 0.10107603 
0.74454474 0.8480347 1.6492873 1.7363386 9.24205 9.899999 
0.9721728 0.67768973 1.7407582 17.061558 4.338549 9.899997 
0.10000314 0.99098176 0.74224734 6.0362844 9.899999 8.661251 
0.38646346 0.10000055 0.100003816 14.841224 4.553544 0.17103598 
0.3659371 0.10000338 0.100004606 9.551676 0.10000132 3.0991035 
0.6473329 0.9528431 1.739447 6.5446324 7.15997 9.899997 
0.7109015 1.5852686 0.1000009 4.6054063 8.163771 0.106813535 
0.10000232 0.100002736 1.3137631 10.508207 6.396711 6.584933 
0.7745067 1.2094744 0.10000162 7.1649127 7.54709 9.117299 
0.10000407 0.10000413 1.5065023 10.5324335 6.023285 0.1000076 
0.8779622 1.7003502 0.7187895 12.213536 9.899996 9.899998 
1.7003307 0.71566063 0.73739576 18.799994 3.6850696 9.024033 
0.86311066 0.100002356 0.96753216 16.263287 2.231369 9.9 
0.5826272 0.10000094 0.10000385 12.286482 7.4533253 4.8457265 
0.71011925 1.3178699 0.10000416 10.155278 9.810811 5.634076 
1.6508051 0.10000146 0.10000179 18.799994 4.7594614 0.10000041 
0.10000223 0.9039612 1.3209695 3.4754868 8.48883 9.135014 
0.10000138 2.166051 0.75734824 7.657608 7.669852 8.958172 
0.4819689 0.1000042 0.10000161 18.799782 1.2774488 4.088289 
1.3008608 0.9588066 0.7693597 8.926662 9.881387 4.9736533 
1.4430848 0.10000016 0.10000001 0.1000033 2.8170161 0.7569825 
0.100001745 1.4342271 0.10000225 8.863541 9.472476 1.4643201 
1.1704189 1.347471 0.92774373 0.26675388 1.7252657 1.189386 
0.8678261 0.10000098 1.6495861 17.026638 0.10000322 9.899995 
0.100004815 0.10000442 2.1896422 14.823911 8.834405 9.899997 
0.3422882 0.10000424 0.10000317 5.8087606 9.558425 1.4368067 
1.2552507 0.8109174 1.4709835 16.158224 9.139502 9.899999 
1.9577007 1.1549342 0.10000146 18.79999 9.899996 4.7310414 
1.8822331 1.021881 0.10000342 18.799994 5.5819693 3.0336936 
0.10000193 0.10000045 1.8107593 2.5128372 0.1000009 1.6244401 
0.46304846 0.10000131 0.10000067 18.799992 6.8159924 0.10000262 
0.10000406 1.4210588 1.5271226 14.470216 5.483543 9.899998 
1.6800494 1.5298893 0.100001216 16.894903 9.873122 3.7255507 
0.7663309 0.78852504 1.5800211 8.095504 8.40596 8.692701 
1.1571537 0.7422558 0.10000234 18.799995 6.981467 0.10000205 
0.10000178 0.100001395 1.3025174 7.481216 2.1648812 9.899996 
0.9658618 0.10000149 1.8339708 11.494527 0.100005 9.899996 
0.77379876 0.84213865 1.6761749 0.89058477 7.5507755 9.899999 
0.42269725 0.38084465 0.10000211 5.1429987 9.863875 3.4690216 
0.10000334 0.5095595 0.10000008 5.9103694 7.8023486 0.10000176 
0.41589427 0.10000331 0.100001365 18.799994 0.10000351 6.8915257 
0.10000366 0.10000472 1.810946 5.7175517 3.6966558 9.899997 
0.7787597 1.2099557 0.100003295 9.11155 9.74783 7.7499185 
0.100001 0.10000254 1.8114295 14.28045 0.10000077 5.7476625 
1.538547 0.10000359 0.10000374 14.4283 0.10000423 9.899998 
0.47903568 0.100003995 0.1000009 18.799988 2.6273396 6.150488 
0.85721254 0.7536589 1.7191751 17.573652 9.06635 9.899998 
0.10000019 1.1612809 0.1000046 0.10000455 8.238067 0.10000227 
1.9768242 0.1000019 0.8107634 18.799992 0.10000281 9.396417 
0.100000545 1.3288559 1.4725282 3.3989708 5.6422625 9.9 
0.10000189 0.3537814 0.10000081 12.737618 9.896322 4.7742696 
1.9878176 0.100000344 0.100002095 13.444328 9.246493 9.179625 
0.45845592 0.33037528 0.10000131 8.657025 9.843035 5.090298 
1.697227 0.9345999 0.73374355 18.799994 9.899996 8.113714 
0.9461838 0.1000016 1.7851973 17.04574 2.0974758 9.899996 
0.10000433 0.5406721 2.209343 1.0024108 0.10000128 9.899997 
0.8861719 0.5526337 1.8630971 10.415295 3.5335512 9.882745 
0.100004904 0.10000365 1.8101152 2.298674 4.971567 0.11711225 
0.7271112 1.6489928 0.10000418 18.799995 8.13056 0.8872418 
1.9956445 0.1000013 0.100004986 18.799992 5.6243186 3.553038 
0.100004435 1.9974543 1.0871938 3.649109 3.905627 9.899997 
1.578668 0.87046325 0.740333 14.520664 2.957112 9.899997 
0.8259467 1.1934814 0.10000221 10.114649 8.783288 0.10000867 
2.322612 0.10000326 0.10000367 13.931161 9.899999 9.899995 
0.99357647 0.1000032 1.907445 18.799992 5.205337 9.899998 
1.7748684 0.8171878 0.100002386 18.799994 3.3488688 0.10000331 
0.10000402 0.8083021 2.1164677 0.100004844 2.8925092 9.899995 
0.10000251 1.1007178 1.3752153 3.5563707 7.354572 9.899998 
0.100000136 0.6248919 1.5008101 0.10000346 3.7242084 9.899995 
0.10000138 2.033346 0.10000478 7.1898565 4.002223 0.101194 
1.084615 0.1000013 0.100003086 18.799992 9.899998 6.055326 
0.100000925 0.100001834 1.8111508 1.4353758 0.10000221 1.5095286 
0.100001 0.7250378 1.2679858 4.068955 9.899996 7.0032444 
0.76386184 0.7635902 1.563215 7.7873435 6.1355014 9.899997 
0.10000409 0.1000049 0.100001134 0.100003324 1.0908095 9.899996 
0.76672375 0.10000309 1.9560786 17.664717 0.10000211 9.899995 
1.8809824 1.2296084 0.10000481 13.095786 9.899166 5.6757417 
0.10000336 0.5077284 0.100003965 0.10000184 2.932553 9.899998 
0.8580453 0.10000242 1.6364195 11.669083 0.10000364 9.9 
0.10000495 1.9131964 0.10000475 1.2612181 8.830565 6.746095 
0.10000291 0.1000028 1.5121154 4.5093603 0.1000034 0.9683026 
1.7882391 0.10000388 0.10000494 18.794971 5.2890196 5.360478 
0.83551973 0.72441375 1.7550561 12.352583 7.7319226 9.899996 
0.10000104 0.100002326 1.507249 12.416813 0.12363771 4.1654263 
1.3177204 0.9830287 0.7833699 11.655185 9.899999 9.899999 
0.100004755 0.10000456 0.46253127 0.10006427 8.936983 2.5608244 
0.100004256 0.33788937 0.10000075 5.972328 9.899995 0.7302928 
0.10000013 0.72902787 1.2854723 4.2505836 0.10000215 8.923547 
0.7959951 0.6899081 1.4748031 8.589798 6.9693513 9.156254 
0.10000278 1.4350218 0.10000436 4.439908 0.10000209 9.899999 
0.71923125 1.2941979 0.100000255 10.926646 9.319937 8.361715 
0.10000183 1.2046988 1.4083304 0.21683702 1.6635484 7.7740164 
0.10000028 0.100004904 1.3185669 16.598537 7.981527 2.2958422 
0.7135367 0.1000026 0.7787162 1.166996 0.10000067 8.593732 
0.10000087 0.10000039 1.4970602 12.014435 0.10202339 9.029967 
0.3365884 0.100000225 0.100001164 0.8049231 0.10001076 4.9282193 
0.83873767 1.8538488 0.10000341 18.799994 8.514073 4.9223294 
0.8432454 0.100000404 0.7516105 15.999403 8.274468 3.2398984 
0.100003004 0.100001685 0.51701957 0.10000245 6.6307335 6.485595 
0.76689786 1.7656692 0.10000185 15.323602 4.6906013 0.10240854 
0.10000443 0.10000108 0.7225925 2.8299172 7.3826485 9.899933 
0.10000189 0.100002415 1.4971262 1.0555253 0.10000372 9.899998 
0.90080297 0.10000252 0.7423416 17.898766 0.44176024 4.722588 
0.10000382 2.5955224 0.10000402 0.10000173 2.9719536 7.9582143 
0.100002535 1.4575583 0.10000036 0.100002185 0.100001365 1.5296953 
0.88674825 0.100000076 1.6753236 14.848699 3.512385 9.894737 
0.100004554 0.32791722 0.10000204 0.100003265 9.899996 6.3621783 
0.87083954 0.10000089 1.6508819 6.7647295 0.10000214 9.899999 
0.94826597 1.128301 0.10000376 18.799994 6.2672133 3.4361663 
0.10000204 0.10000038 0.89060396 0.10001011 0.10000429 6.033073 
0.100003585 0.10000018 2.1896389 0.1000028 0.1000028 8.942461 
0.100003004 0.34109893 0.10000485 6.6408706 9.899995 0.10000005 
0.43688273 0.10000197 0.100004695 1.3910997 0.10000279 3.2680159 
0.10000436 0.79683095 0.10000303 4.701839 8.858338 3.8598967 
1.5333796 0.970622 0.7926683 0.100003004 0.10000015 0.7465152 
0.10000499 1.4342823 0.10000067 18.799992 4.9150367 2.1378994 
1.9650934 1.078078 0.10000008 18.799994 8.18397 1.4677826 
0.10000155 0.7895878 1.3126318 6.4992075 9.089838 9.9 
0.1000019 1.2169186 0.10000011 0.10000268 5.373598 0.24765871 
1.5208395 1.0200027 0.81932914 17.488222 9.899998 9.899995 
1.6054637 0.10000164 1.6047484 18.06414 2.1231897 9.899997 
0.10000146 0.10000486 0.5948389 1.8279111 9.9 5.3847265 
0.10000497 0.100000404 2.1896672 18.799994 1.6405107 8.085094 
2.3225667 0.10000044 0.10000168 9.65833 2.6120143 0.10051489 
0.8241047 1.848127 0.100002535 14.81187 9.565236 4.663595 
2.3226645 0.10000143 0.1000014 10.898543 9.9 0.100000516 
0.10000497 1.1543331 1.3904656 0.10000093 9.256548 9.899996 
0.100002736 1.7994834 1.1239883 1.7633829 8.51097 8.913166 
0.81504714 0.7207767 1.7319221 7.3335404 4.7337627 9.899997 
0.10000161 0.1000037 0.83030915 7.07709 7.7753363 9.899998 
0.10000099 2.5952568 0.10000111 16.615347 3.3048 0.10509638 
0.814265 1.8429985 0.10000443 18.799992 8.149439 2.8068337 
0.100000076 1.0680796 1.3667064 0.90312654 9.899999 4.0481267 
0.100000754 0.100000754 0.583989 0.1199827 6.8532696 2.0902033 
0.8591457 1.159809 0.10000318 18.799992 3.8140564 7.1581717 
0.47411567 0.100003324 0.10000105 18.799992 6.091278 1.7025603 
1.5425019 0.8817033 0.100000046 18.799994 9.899999 7.077047 
0.8355768 0.100002736 0.1000022 5.3454995 3.4353561 9.301698 
0.10000283 0.10000041 1.8134108 3.7914252 0.100003935 9.899997 
2.0073311 0.10000403 0.100000314 18.799978 4.4456053 2.2334383 
0.45500943 0.10000123 0.1000022 0.10000383 0.10000389 1.6442451 
0.10000465 0.100001365 1.2718923 6.814864 9.899997 9.899999 
0.7231119 1.2799958 0.10000249 8.822709 9.119728 9.899995 
0.71193135 0.10000076 1.5860465 14.339025 0.100001074 9.899996 
0.10000209 0.8636624 0.100001335 0.10000194 5.71976 9.899999 
0.75377595 1.1161809 0.100002185 8.187577 9.892561 3.9186242 
1.3594109 0.10000381 0.7611363 11.72288 9.899999 7.8974385 
0.10000268 1.4038119 1.5391101 0.10000023 6.603848 4.658969 
0.10000394 0.10000414 1.1889098 10.405725 9.317128 9.899997 
0.10000489 0.100000076 1.8100698 4.7860317 0.10000347 1.4222189 
0.10000106 0.3186171 0.10000202 0.10000236 9.1343775 6.047975 
0.73731244 0.100003086 0.78345203 17.669064 0.100001715 9.9 
0.10000427 0.4542517 0.1000038 0.5781233 3.835611 8.951482 
1.9986519 0.8012772 0.10000449 18.799992 8.313535 4.0699134 
1.9126925 1.0771846 0.10000136 18.799995 8.8459 0.100000694 
0.9796707 0.10000078 1.8773899 13.812523 3.2053308 9.899998 
0.8478934 0.10000414 1.2276517 2.5622914 1.3995782 9.775458 
0.40535188 0.10000355 0.10000198 2.5486577 0.100005075 7.3910174 
0.3373115 0.10000443 0.10000281 2.0263667 0.100004226 7.2816267 
0.10000112 0.10000439 0.8959732 0.101422705 0.10000258 2.7236776 
1.4960705 0.100000575 0.100004695 18.799992 0.100001805 2.8074453 
0.100004196 0.5029 0.100001164 8.690686 9.899998 0.10000326 
0.100001745 0.8451197 0.9043735 3.7142262 8.6852 9.899999 
0.2323795 2.5738034 0.100001946 11.994417 9.820872 2.1177392 
0.10000211 1.9090078 0.100001805 0.10000261 1.7973952 0.10000458 
0.100003935 0.10000359 0.10000444 5.3012614 4.7219853 0.101167776 
0.62892103 0.100003086 1.220352 12.772734 2.819456 9.899997 
0.10000232 0.10000404 1.510556 13.296485 0.10004474 7.0460916 
0.88449943 0.10000318 0.10000031 15.222715 9.895504 1.998237 
0.7220915 0.85535544 1.6377833 2.1078787 8.038126 9.899999 
1.5212427 0.9242647 0.75408536 13.984428 9.899995 9.080076 
0.10000357 0.34772646 0.10000219 5.7104154 9.899998 0.100004405 
0.5550839 0.100002296 1.3525634 12.722522 1.7206236 9.899995 
0.42373037 0.10000289 0.10000261 12.810295 0.10000454 4.0740194 
1.4386575 0.10000088 0.10000174 15.509193 5.777858 0.10000162 
1.6048962 0.9145574 0.7660535 0.8591773 1.0903212 0.10000149 
0.4858777 0.10000263 0.10000175 18.799995 4.440777 4.370633 
1.450549 0.10000184 0.10000479 18.79997 1.3251103 1.7526236 
0.10000069 0.50478804 0.10000377 8.732008 9.798762 3.2257473 
0.679582 0.10000035 1.5786374 0.98270285 0.10000422 9.899999 
0.3406846 0.10000035 0.100003496 0.10000098 4.836511 8.342695 
0.10000113 0.1000016 1.4956435 7.634217 0.10000654 8.742516 
1.2409531 0.7862497 0.77730185 15.408284 4.4779463 9.8731785 
0.38821518 0.10000274 0.10000276 18.799994 0.10000199 2.037858 
0.5763694 0.100000285 1.4627305 17.112978 1.4442693 9.899999 
1.5085204 0.10000434 0.10000433 18.799994 4.0107555 8.605705 
0.10000152 0.31775925 0.10000297 16.836355 0.10000441 9.899996 
0.10000218 0.1000011 0.90874726 6.1753526 1.5731531 9.899997 
0.1000012 1.2133244 0.10000408 0.10000494 9.253237 9.899998 
0.84287584 1.8529476 0.10000031 18.799994 9.9 4.9734106 
0.83277106 1.8487408 0.10000442 17.89197 9.899996 1.7663132 
1.5032068 0.10000026 0.10000377 6.802344 0.10001401 1.4726264 
2.0024912 0.10000257 0.10000115 15.729175 4.2987823 0.10000269 
0.10000248 2.5951002 0.100004055 0.10000171 6.451712 9.899997 
0.10000187 0.8076528 0.100004755 11.54886 9.881706 2.5908797 
0.6937065 1.4822174 0.100001715 4.783195 9.868281 7.775997 
0.10000492 0.10000173 2.3171494 1.8304954 8.481235 9.899999 
0.10000059 0.10000495 1.8112085 1.2265991 9.899995 9.899997 
0.10000142 0.10000118 1.4990952 0.10000215 3.7904847 9.899997 
0.100000694 1.1997101 1.4063859 0.10230899 2.533723 3.596629 
0.3377141 0.100000575 0.100002706 5.594604 0.100002445 7.159544 
0.100003056 0.70761573 1.3721321 2.3691838 4.292239 9.899112 
0.10000489 0.49707386 0.10000328 2.672274 7.090699 0.12413046 
0.100004084 0.10000303 1.8151852 2.7734373 8.862945 9.899999 
0.100001544 0.100003 1.3168478 4.8299026 5.7481213 0.10000002 
0.9717241 0.100001544 1.8505793 18.799994 2.206619 9.899996 
0.93238515 0.10000209 1.7552425 18.799994 1.7686094 9.899997 
0.100001745 2.4076357 0.100002654 0.10000115 0.10000475 9.899995 
0.10000097 0.10000346 1.5131925 6.042981 0.100002535 7.972871 
1.4443504 0.98462266 0.786373 10.750794 8.524523 9.899996 
0.49327472 0.100002654 0.100002214 18.799994 8.887647 2.8552413 
0.100003846 0.86884254 0.10000481 0.1000057 3.658016 4.911307 
0.10000472 1.2216492 0.10000181 8.428039 7.975907 5.606495 
0.100001134 0.8148752 0.10000403 6.4831085 9.88667 6.6831355 
1.1823902 0.10000387 1.7436763 18.046144 0.10000081 8.794175 
1.3593938 0.100000314 1.2263701 18.799994 9.9 9.899997 
1.0410548 0.84683454 1.1803371 13.411788 9.153049 9.899997 
0.100000866 0.10000172 1.5093625 1.6278068 9.899997 0.49820408 
0.10000041 0.10000104 1.8110846 2.5922966 0.10000409 6.780293 
0.10000021 1.434145 0.10000048 18.799992 8.979783 0.88775104 
0.41059193 0.4634089 0.10000137 9.988228 3.654464 5.94247 
0.10000246 0.7900963 1.7533875 9.784406 8.443227 9.899996 
0.100004636 2.4781132 0.10000267 18.799992 2.7078092 0.10000026 
1.5235012 0.10000164 0.1000049 17.647135 1.3817732 8.932119 
0.98557013 0.10000451 0.10000237 11.223109 9.899996 4.7965407 
0.41064307 0.10000261 0.10000266 0.10000433 0.8154877 6.9051027 
0.83641887 0.93348557 1.5451189 12.912824 9.895498 9.031631 
0.9812734 0.10000345 0.73368293 18.799995 6.0805345 4.0434523 
0.100001335 0.10000358 0.8884605 1.9047148 5.699469 9.898605 
0.10000484 1.1424234 1.6348578 5.000273 9.204259 9.899999 
0.100004524 0.10000478 1.2120723 0.10000055 9.899999 2.951327 
0.10000263 1.3214827 1.4676257 18.799992 8.6905 9.899996 
1.995936 0.1000034 0.881109 17.982296 6.6456537 9.899999 
0.69945925 0.10000012 0.83847064 12.265989 0.10000087 9.899996 
0.47625497 0.10000366 0.10000305 18.788696 3.3025203 4.0407534 
0.10000243 0.10000223 1.8124621 0.10000255 8.188991 7.510724 
2.1522474 0.10000297 0.10000435 18.799994 5.2130623 0.100000635 
0.8018129 1.7774777 0.65128076 10.715876 9.899998 9.1093645 
0.7664655 0.81835926 1.6233857 6.8971586 8.280139 9.899999 
2.3385847 0.59900314 0.10000393 18.799992 8.130364 1.8908937 
0.1000003 0.10000226 0.8288499 12.50318 7.077712 0.100004375 
0.10000071 1.1395226 0.10000374 0.10000294 4.902044 7.4498477 
0.90743166 0.9056964 0.100000314 14.70345 9.046332 0.100001484 
0.10759194 0.100000694 0.10000392 7.4863653 3.0657747 0.10028816 
0.46535593 1.6076723 1.1574566 5.5592103 9.899995 9.181762 
0.10000306 1.2126158 0.10000295 14.821837 9.899998 0.10000414 
0.100000024 1.4351149 0.10000109 0.10015095 2.551557 5.9965577 
0.100003384 1.1476041 0.10000079 0.10000153 2.6383517 3.0815978 
0.100004464 1.4563508 0.10000063 6.855986 9.164703 3.3478303 
1.9956753 0.10000447 0.8720224 17.88948 0.10000363 9.899997 
0.5877311 0.10000455 0.1000043 16.80007 9.881298 4.189735 
0.9719936 0.10000191 1.8545249 13.864908 0.10000206 9.899996 
0.99370426 0.10000239 1.909545 17.134024 5.073714 9.89426 
0.23953782 0.100000106 0.100003876 2.749511 4.8980713 0.32755977 
0.100004524 0.10000196 1.8107334 0.10000373 7.6642056 0.10000171 
0.8161327 0.100003 0.10000011 10.38237 8.092083 5.882646 
0.1000035 0.78562504 0.100002035 6.2432284 3.3803718 7.400917 
1.4699153 0.100000836 0.100003354 18.799973 2.544102 2.4830787 
0.100001946 0.24851868 0.10000079 3.7163649 0.100001805 5.4705133 
1.5698425 0.8155426 0.7049972 18.799994 5.1032863 6.870135 
0.100003645 0.10000077 1.3134477 13.327081 0.100000106 9.899995 
1.3926469 0.8058518 0.6911573 13.205891 1.0918915 7.3976126 
0.10000139 0.97188956 1.3403642 0.10000207 7.188518 9.899971 
0.100001164 1.0460856 0.1000025 1.4176279 4.36255 0.10000653 
0.1000006 0.40434122 0.10000139 0.10000425 0.10028017 2.58544 
0.100001305 1.2475274 0.97330165 0.10000016 9.899996 8.553176 
0.95749533 0.10000464 1.0263134 18.799994 0.10000121 6.0726023 
0.44990855 0.10000045 0.10000214 18.799994 2.6458015 1.4440137 
0.100000024 0.100004114 1.4999977 3.7062314 9.899995 5.8796935 
0.10000082 0.10000115 1.8100883 0.10000272 0.100001834 6.356814 
0.37107635 0.10000268 0.10000255 18.799995 0.10000052 4.939045 
0.10000069 0.86534464 0.10000463 0.10000265 9.899996 6.648786 
0.100003645 0.100001216 1.506526 2.2495956 9.899997 0.10000347 
0.67650414 0.10000137 1.5776774 0.100000314 6.1422796 9.899996 
0.10000495 0.10000114 1.8107649 18.799992 0.10000108 4.215637 
0.10000022 0.48040643 0.10000457 0.10000327 8.22953 9.899999 
0.371491 0.10000043 0.1000006 9.40021 0.10000057 0.1000003 
0.35688075 0.10000137 0.10000459 1.5954021 0.10000126 3.6965995 
0.10000307 1.8710998 0.100004494 0.10000251 7.997337 9.899997 
0.100000344 0.10000162 0.64211154 5.00357 9.195475 1.7848634 
0.100001924 0.7287724 1.2827657 6.6244807 4.0320764 7.6830516 
0.100004934 1.2459317 1.4259877 9.9912195 9.899997 9.899996 
1.4880738 0.10000417 0.100004606 16.864902 0.10000138 9.899997 
2.086669 1.0150378 0.100005664 18.790617 6.663533 3.292129 
1.4713614 1.0956848 0.8594596 9.723559 6.4893312 9.899997 
0.10000146 0.100004755 1.3176769 12.670259 9.123935 3.3185275 
0.10000049 0.10000413 1.4979448 1.1826181 0.1000067 6.6655717 
0.100003995 1.3102268 1.4603884 1.9029169 9.899997 9.899995 
0.10000365 0.8518674 0.1000027 17.930962 9.899997 0.1000044 
0.72468346 1.6394476 0.100001745 7.0976377 9.899997 0.10000322 
0.7236322 0.10000227 0.77845633 13.177363 0.10000163 8.702522 
0.36564088 0.100002915 0.10000021 11.318187 0.10000488 0.10000359 
0.88428146 0.100002185 0.10000126 10.577512 9.899998 7.620374 
1.0407485 0.10000197 0.10000212 18.799994 8.569214 5.708981 
0.10000454 0.100001894 1.5069588 8.635625 0.10000336 0.100001365 
0.100001924 1.4336203 1.5420828 2.24609 8.00734 8.866732 
0.83720183 0.10000248 1.6158705 6.4356656 5.195752 3.5529933 
0.5203952 0.10000301 0.10000108 18.799992 5.3225603 2.399786 
1.7875397 0.8445973 0.10000228 18.799994 9.899998 2.152483 
0.10000478 0.7258836 1.3420311 10.00131 6.989518 9.899993 
0.10000417 0.7307669 1.3015358 4.454626 7.4144974 9.892342 
0.10000094 0.26130685 0.100003675 3.2513697 0.10000487 9.899999 
0.100001164 2.4076302 0.100004844 1.3587871 7.6342216 9.899977 
0.41693646 0.10000403 0.10000183 6.1290107 0.100004435 6.300814 
0.10000055 0.34164703 0.10000485 0.10000074 6.7131305 0.10000484 
1.394501 0.10000266 0.7740527 16.644567 0.10000161 8.118369 
0.10000106 0.4812508 0.10000305 0.10000288 8.020115 9.899997 
0.471261 0.100004286 2.2608638 17.606482 0.10000062 9.899997 
0.10000335 0.10000289 2.1896777 9.595339 6.0176783 9.899997 
0.5773293 0.1000032 0.10000021 15.876331 7.0923595 0.32132486 
0.36256853 0.100004256 0.10000066 7.200938 1.7003193 9.899998 
0.10000076 1.0051804 0.100002296 10.173315 9.899999 9.899998 
1.7892426 0.8485437 0.10000299 18.799994 9.899997 1.6335571 
0.5103029 1.1663367 1.659729 2.3167715 9.054846 9.9 
1.710081 0.10000139 0.85378546 15.407625 0.10000279 9.899995 
0.8420465 1.855042 0.10000413 18.799994 3.3979516 0.10000254 
0.10000253 0.48435783 0.10000044 3.0265853 9.899996 7.13806 
0.10000495 0.10000396 1.0416875 12.063708 4.756572 9.899996 
0.10000431 0.36768377 0.10000433 0.10000179 5.0296955 0.100001134 
0.10000469 0.100004286 2.043406 0.10000277 9.899996 9.451119 
0.74519336 1.7068027 0.10000234 15.703148 6.47378 0.103539415 
0.10000076 0.100001514 1.5035104 2.8206615 2.5777843 9.899999 
1.9661963 1.0821437 0.10000319 18.799995 8.224167 0.10000489 
0.10000272 0.100003615 1.4953803 0.100001395 2.9805775 4.8485427 
0.10000142 0.10000481 0.691018 1.7149112 9.899996 9.899997 
0.10000349 1.6818666 1.0236869 0.10000303 5.628818 9.899995 
0.55101013 0.5827323 2.0978055 8.812603 7.540194 9.899997 
1.8994375 1.2122732 0.10000099 12.830289 9.890672 7.37707 
0.86974925 0.10000006 1.6483881 10.99564 6.2871537 9.899998 
0.100000784 0.100002445 0.8422218 12.658564 4.8274446 2.097827 
1.5016565 0.10000457 0.10000247 0.100000866 9.078827 8.436857 
0.1000004 0.100003086 1.3158801 5.668068 8.902953 3.9890447 
0.100002825 1.9150544 0.10000311 6.176056 9.899997 0.1000038 
0.10000034 0.62247986 1.9719799 5.070633 5.989205 9.899995 
0.7957247 0.100000374 1.5929934 3.8277752 4.8230305 9.899999 
0.10000345 0.73022294 1.2900034 4.7075906 5.713038 9.259005 
0.8254615 1.2419568 1.1623852 5.732156 9.9 8.123563 
0.73102695 1.269437 0.10000246 5.1784387 9.896265 8.169062 
0.100002885 1.3733238 1.5066079 4.3570895 9.24897 9.9 
1.5854025 0.10000148 0.68174356 18.799992 0.1000003 5.8469167 
0.5985483 0.6041677 0.100002974 13.740449 9.893455 0.10000388 
0.100002035 0.6158652 0.10000021 4.20663 9.899996 5.4237304 
1.0920475 1.3579011 0.65494853 13.512946 9.9 7.852436 
0.100001946 0.100000605 1.7747705 0.10000283 6.2076163 4.2012444 
2.4097872 0.10000172 0.10000064 18.799994 2.545173 6.6926312 
1.9955007 0.1000014 0.100003645 18.79914 6.1091566 2.3244796 
1.6052839 0.10000495 0.10000043 18.791594 4.0161333 3.6524723 
0.8520306 1.1726407 0.10000272 18.799994 3.197291 6.8906 
0.49971753 0.10000134 0.100000866 18.799992 7.328683 0.10000495 
0.1000003 2.2623014 0.10000319 17.969254 8.92899 0.10000409 
1.4561304 0.100003995 0.10000159 17.2705 3.2952735 0.10000423 
0.847755 0.10000439 1.6280979 0.10292994 6.9905086 8.960462 
0.100003526 1.3563966 1.492536 6.59075 5.395387 9.899997 
1.2042382 1.6486012 0.10000029 18.799994 9.899998 8.853299 
1.3131092 1.6930885 0.10000351 18.799994 8.061595 0.100003034 
0.100001596 0.3295247 0.100001685 0.10000426 8.797468 0.10000393 
0.10000415 0.22373387 0.10000114 6.6816473 0.10000003 0.100003816 
1.9919515 0.100001745 0.84854436 18.799992 0.2296885 9.801892 
0.100002594 0.4933139 0.25767347 5.634111 9.884498 7.246963 
0.100001544 0.48678708 0.10000181 6.075252 9.889028 5.0584154 
0.10000285 1.373308 1.507084 6.780758 4.890398 9.899996 
0.53196114 0.10000343 0.10000043 18.799992 9.899996 0.7997048 
0.8696141 0.100003675 1.6492591 18.799995 0.6208829 9.899999 
0.83403563 0.10000351 0.7553762 13.08572 7.629527 3.5207965 
0.1000049 0.8186811 0.100001626 3.654702 9.24276 5.4783697 
0.8813069 0.10000278 0.100004785 9.796792 9.899998 8.358966 
0.100003816 1.1535662 0.10000463 0.100000754 7.424844 7.113211 
0.10000091 0.10000411 1.3133852 10.93602 9.2099085 9.899998 
1.6939393 0.79622465 0.75247186 17.970547 1.4783555 9.083381 
0.78386635 1.8031452 0.10000179 16.42784 4.337154 0.10000023 
1.0153173 1.096735 0.10000495 18.799994 9.899999 6.072805 
1.3493062 1.3420867 0.10000232 18.799995 9.899999 4.2453284 
0.100004144 0.10000034 0.54699296 0.10000297 2.1472023 9.899996 
0.100002445 0.100002 1.5106947 9.430446 1.6842583 0.5355946 
0.100003734 1.1956723 1.404953 1.423407 9.842173 4.552649 
0.10000273 0.10000496 0.86952364 0.10000145 4.5763736 9.89903 
0.100004844 1.0572875 0.10000379 7.8738165 9.899996 0.10000004 
1.2843218 0.10000169 0.74657077 18.799995 5.660227 5.732968 
0.8583236 0.10000427 0.9587167 11.675314 1.0081635 9.9 
0.100000486 0.10000115 1.525056 4.5607457 0.10000253 0.100004055 
0.10000263 0.10000168 1.8118844 0.10000341 1.7066985 8.213146 
0.10000142 1.6671922 0.10000023 0.100000724 9.293851 0.10000252 
0.10000468 1.4183267 1.5675755 0.10000063 5.241295 3.16915 
0.100002974 0.10000494 0.10000484 3.6991773 1.2632653 9.899999 
0.10000389 1.3234689 0.10000011 0.10000291 7.7572317 4.5156145 
0.8993899 1.6028444 0.10000223 18.799994 2.3153832 0.10000112 
0.969733 0.10000317 0.83194244 18.799992 0.10000405 6.8592973 
1.517176 0.71300584 1.0852377 17.889534 8.17553 9.899999 
0.1000029 0.94284034 0.10000189 15.463069 9.899996 0.10000284 
0.654088 0.96838 0.10000304 11.230972 9.899998 0.10000058 
0.10000117 1.4461116 0.100004606 0.101956435 8.020881 8.930544 
0.100000404 0.10000196 0.8853286 2.8199399 0.10000101 9.9 
1.1663641 0.100000136 0.7339527 18.799992 3.3812528 9.899997 
0.10000062 1.8435572 0.8516256 3.066011 9.127551 8.914688 
0.18582769 0.100002475 0.40620226 4.405958 0.119461 9.899996 
1.3084599 1.0637321 0.8293995 3.4702952 9.757091 6.49737 
0.46007958 0.10000417 0.10000026 17.705679 0.10000251 0.100004904 
0.8286914 0.7743458 1.6621217 14.787945 6.9619274 9.899941 
0.1000022 0.4035063 0.10000445 0.10000258 9.0124035 5.3666787 
0.6948256 1.5057379 0.10000043 5.2651005 9.065716 2.1256108 
0.3389182 0.1000028 0.10000417 0.10000289 0.10000286 6.776091 
0.10000428 0.10000359 0.67744166 0.10000394 8.604514 3.8389034 
0.78361547 1.7265334 0.569203 11.031251 9.434266 6.143642 
1.1907957 0.7569919 0.10000328 18.799994 9.778926 0.10000467 
1.9889703 0.10000126 0.8967951 17.973537 0.10000343 8.3940325 
0.9057344 1.1467447 0.10000388 18.799992 9.899998 8.330257 
0.10000166 1.1400796 1.3861972 5.7826276 7.6287565 8.5878 
1.5149876 0.100003615 0.10000439 18.799992 6.570667 6.62653 
0.3854377 0.10000186 0.10000131 18.799994 5.677817 0.100003526 
0.10000203 0.10000253 1.2293521 7.946912 5.608392 9.899999 
0.10000013 0.8008151 1.3139228 6.17749 9.899996 9.899997 
0.10000458 0.10000468 1.5029693 5.6003313 0.10000326 0.100000024 
0.100003615 0.10000219 1.213813 9.987484 3.7805107 9.899999 
1.4459441 0.10000223 0.10000382 8.182609 0.10000584 1.9920886 
0.52556205 0.10000358 0.10000427 0.44352642 0.10000406 0.10000166 
0.44137353 0.100000925 0.10000055 18.799995 4.5994544 0.10000045 
0.10000144 2.407631 0.10000039 0.10000182 7.150967 4.76049 
1.6486057 1.1410813 0.71728265 18.799994 9.899996 7.601569 
1.5186044 0.10000125 0.10000183 18.055147 4.363473 9.899999 
0.10000333 0.10000143 0.6959369 0.8590603 9.339123 8.465347 
0.10000334 0.7299385 1.2876388 3.2390327 6.1561894 9.899999 
0.10000094 1.0552328 0.10000233 5.3847623 9.562887 0.10000481 
0.10000268 0.7594786 2.1380675 8.006676 8.394219 9.899996 
0.100002445 1.2136782 0.10000193 5.900441 4.095726 0.10009122 
1.160903 0.10000438 0.7336356 18.799994 0.100003414 7.3670707 
0.10000226 0.32588214 0.10000123 0.10000188 0.100000806 7.9013834 
1.4489385 0.10000429 0.7360933 18.30886 6.0545826 9.899995 
1.9601132 0.42139998 0.84935683 18.799992 5.8429947 9.899999 
0.8274952 1.8472996 0.32011196 12.390893 8.680345 9.899999 
1.5162044 0.10000089 0.10000286 16.89315 2.5152283 9.899997 
0.100004 1.3876551 1.5208446 5.8874674 6.8403544 9.899998 
0.93791234 0.10000388 0.10000023 16.065948 6.179175 6.1771116 
1.1385487 0.10000465 0.10000457 18.5021 5.836631 7.352125 
0.100002736 0.10000245 1.8150882 4.394308 9.762488 2.0956168 
0.9392345 0.10000436 1.5340536 16.669134 6.8881073 9.133799 
1.5288689 1.0096865 0.80257857 17.367811 9.899996 9.899995 
0.44445735 0.100000024 0.1000012 17.391361 0.10290331 0.108768724 
1.5211419 0.10000362 0.10000002 18.799994 7.4233074 9.899997 
1.0835366 1.0516534 0.100001395 18.756544 1.006611 4.9461102 
0.35674322 0.100001805 0.100001805 1.7888621 9.9 9.063392 
0.100003555 0.100002535 1.8100904 7.267569 1.3353963 0.10000442 
0.10000251 1.1695976 1.3954935 0.10000198 0.10000306 8.13542 
0.8844591 0.10000293 0.10000211 16.019796 9.899999 9.140128 
0.100004695 0.47702107 0.10000217 1.5202715 9.899995 5.9002237 
0.90542054 1.146013 0.1000046 14.73759 9.868181 6.690777 
0.10000426 0.10000317 1.8128157 6.04887 4.6922164 9.899998 
0.10000109 1.856173 0.10000153 0.10000386 3.635332 0.10000086 
0.10000246 1.414599 1.555852 6.143596 8.141599 9.899997 
0.83750665 0.10000141 0.9500242 12.350255 9.899998 9.026401 
0.100001514 0.50964093 0.10000049 2.6567338 0.96010846 9.9 
0.100004435 0.50991285 0.100001335 0.103368945 3.9222589 0.96576613 
0.52405673 0.10000326 0.10000217 18.799992 9.899995 9.9 
0.49824893 0.10000372 0.10000442 18.799992 7.090696 9.899996 
0.10000137 0.100003146 0.10000062 14.388171 0.10000477 0.10000329 
0.100000046 0.4939295 0.100004174 0.1000001 7.930984 1.280724 
0.100001164 0.331218 0.100002035 0.14577119 5.8424635 2.5054543 
0.100003794 0.100000665 1.1898888 10.945065 7.2651615 9.899997 
0.10000239 0.10000032 0.1000015 5.4529095 4.279142 9.847737 
0.100000456 1.0460252 0.6673556 6.715894 9.867548 2.1192684 
0.10000425 0.10000154 1.8096881 0.10000197 9.899998 0.10000254 
0.7819624 0.10000197 0.75873625 13.174137 3.6769543 9.148489 
0.1000039 0.48931092 0.10000116 1.4250877 7.215155 0.10000197 
1.1082406 0.76828575 1.5996825 15.575556 9.249565 9.899997 
1.8824421 0.56130207 0.8284177 18.799995 3.6587346 8.203164 
0.73687404 1.28932 0.10000306 11.833471 9.309135 0.10000321 
1.826341 0.92935824 0.10000161 18.799995 7.5162992 2.7338884 
